0.00151474 0.0525939 0.663673 128 128 128
0.00243519 0.0528979 0.667509 128 128 128
0.00329607 0.0520949 0.657376 128 128 128
0.0042099 0.0522934 0.659881 128 128 128
0.00510145 0.052194 0.658626 128 128 128
0.00601244 0.0522934 0.659881 128 128 128
0.0064816 0.049025 0.618638 128 128 128
0.00731348 0.0489377 0.617535 128 128 128
0.0081424 0.0488506 0.616437 128 128 128
0.00898434 0.0488506 0.616437 128 128 128
0.00982627 0.0488506 0.616437 128 128 128
0.0106493 0.0487638 0.615342 128 128 128
0.0112499 0.0477461 0.6025 128 128 128
0.0119276 0.0471719 0.595253 128 128 128
0.0127625 0.047253 0.596278 128 128 128
0.0136948 0.0476632 0.601454 128 128 128
0.0145415 0.0477461 0.6025 128 128 128
0.015418 0.0479128 0.604603 128 128 128
0.0160755 0.0474163 0.598337 128 128 128
0.0168927 0.0474163 0.598337 128 128 128
0.0177405 0.0474983 0.599373 128 128 128
0.0186236 0.0476632 0.601454 128 128 128
0.0194789 0.0477461 0.6025 128 128 128
0.0203018 0.0477461 0.6025 128 128 128
0.0211247 0.0477461 0.6025 128 128 128
0.0219476 0.0477461 0.6025 128 128 128
0.0227705 0.0477461 0.6025 128 128 128
0.0235934 0.0477461 0.6025 128 128 128
0.0243317 0.0475806 0.600411 128 128 128
0.0251082 0.0474983 0.599373 128 128 128
0.0259717 0.0475806 0.600411 128 128 128
0.0267918 0.0475806 0.600411 128 128 128
0.0280001 0.0482496 0.608853 128 128 128
0.0289333 0.0484198 0.611001 128 128 128
0.0297678 0.0484198 0.611001 128 128 128
0.0304413 0.048165 0.607785 128 128 128
0.0310535 0.0478293 0.603549 128 128 128
0.0317121 0.0475806 0.600411 128 128 128
0.0324758 0.0474983 0.599373 128 128 128
0.0332945 0.0474983 0.599373 128 128 128
0.0341131 0.0474983 0.599373 128 128 128
0.035053 0.0476632 0.601454 128 128 128
0.0359369 0.0477461 0.6025 128 128 128
0.0368238 0.0478293 0.603549 128 128 128
0.0377138 0.0479128 0.604603 128 128 128
0.0392939 0.0488506 0.616437 128 128 128
0.0402074 0.0489377 0.617535 128 128 128
0.0410509 0.0489377 0.617535 128 128 128
0.0418943 0.0489377 0.617535 128 128 128
0.0426617 0.0488506 0.616437 128 128 128
0.04312 0.0484198 0.611001 128 128 128
0.0434942 0.0479128 0.604603 128 128 128
0.0442428 0.0478293 0.603549 128 128 128
0.0450671 0.0478293 0.603549 128 128 128
0.0465401 0.0485053 0.61208 128 128 128
0.0473761 0.0485053 0.61208 128 128 128
0.0482121 0.0485053 0.61208 128 128 128
0.0487895 0.0482496 0.608853 128 128 128
0.0491032 0.0477461 0.6025 128 128 128
0.049667 0.0474983 0.599373 128 128 128
0.0497964 0.0468499 0.59119 128 128 128
0.0502608 0.0465322 0.587182 128 128 128
0.0507189 0.0462189 0.583228 128 128 128
0.0511709 0.0459097 0.579327 128 128 128
0.0516169 0.0456047 0.575477 128 128 128
0.0519712 0.045229 0.570737 128 128 128
0.052664 0.0451546 0.569798 128 128 128
0.0536186 0.0453037 0.571679 128 128 128
0.0582439 0.0485053 0.61208 128 128 128
0.0590799 0.0485053 0.61208 128 128 128
0.0591839 0.0479128 0.604603 128 128 128
0.0599051 0.0478293 0.603549 128 128 128
0.0606238 0.0477461 0.6025 128 128 128
0.0610222 0.0474163 0.598337 128 128 128
0.0618394 0.0474163 0.598337 128 128 128
0.0627651 0.0474983 0.599373 128 128 128
0.0638045 0.0476632 0.601454 128 128 128
0.0647383 0.0477461 0.6025 128 128 128
0.0655612 0.0477461 0.6025 128 128 128
0.0662689 0.0476632 0.601454 128 128 128
0.0668582 0.0474983 0.599373 128 128 128
0.0675599 0.0474163 0.598337 128 128 128
0.0682593 0.0473345 0.597306 128 128 128
0.0690751 0.0473345 0.597306 128 128 128
0.0717464 0.0485912 0.613163 128 128 128
0.0727125 0.0486773 0.614251 128 128 128
0.0735515 0.0486773 0.614251 128 128 128
0.07335 0.0479965 0.60566 128 128 128
0.0736621 0.0476632 0.601454 128 128 128
0.0744836 0.0476632 0.601454 128 128 128
0.0750445 0.0474983 0.599373 128 128 128
0.0761265 0.0476632 0.601454 128 128 128
0.076948 0.0476632 0.601454 128 128 128
0.0779047 0.0477461 0.6025 128 128 128
0.0787276 0.0477461 0.6025 128 128 128
0.0795505 0.0477461 0.6025 128 128 128
0.0806539 0.0479128 0.604603 128 128 128
0.082197 0.0483345 0.609925 128 128 128
0.08303 0.0483345 0.609925 128 128 128
0.0829864 0.0478293 0.603549 128 128 128
0.083665 0.0477461 0.6025 128 128 128
0.0843412 0.0476632 0.601454 128 128 128
0.0851627 0.0476632 0.601454 128 128 128
0.0865854 0.0479965 0.60566 128 128 128
0.0874126 0.0479965 0.60566 128 128 128
0.0882399 0.0479965 0.60566 128 128 128
0.0893796 0.048165 0.607785 128 128 128
0.0902097 0.048165 0.607785 128 128 128
0.0882529 0.0466905 0.589179 128 128 128
0.0880099 0.0461412 0.582248 128 128 128
0.0888051 0.0461412 0.582248 128 128 128
0.0941912 0.0485053 0.61208 128 128 128
0.0950271 0.0485053 0.61208 128 128 128
0.0951904 0.048165 0.607785 128 128 128
0.0956848 0.0479965 0.60566 128 128 128
0.0963436 0.0479128 0.604603 128 128 128
0.0970001 0.0478293 0.603549 128 128 128
0.0973158 0.0475806 0.600411 128 128 128
0.0967938 0.04693 0.592201 128 128 128
0.0972701 0.0467701 0.590183 128 128 128
0.0979094 0.0466905 0.589179 128 128 128
0.0992203 0.04693 0.592201 128 128 128
0.100372 0.0470909 0.594232 128 128 128
0.101707 0.0473345 0.597306 128 128 128
0.102523 0.0473345 0.597306 128 128 128
0.103339 0.0473345 0.597306 128 128 128
0.103975 0.047253 0.596278 128 128 128
0.104251 0.0470103 0.593215 128 128 128
0.104525 0.0467701 0.590183 128 128 128
0.106054 0.0470909 0.594232 128 128 128
0.106682 0.0470103 0.593215 128 128 128
0.106761 0.0466905 0.589179 128 128 128
0.107566 0.0466905 0.589179 128 128 128
0.109865 0.0473345 0.597306 128 128 128
0.11145 0.0476632 0.601454 128 128 128
0.112466 0.0477461 0.6025 128 128 128
0.113093 0.0476632 0.601454 128 128 128
0.113914 0.0476632 0.601454 128 128 128
0.115135 0.0478293 0.603549 128 128 128
0.116569 0.0480806 0.60672 128 128 128
0.118226 0.0484198 0.611001 128 128 128
0.11906 0.0484198 0.611001 128 128 128
0.118227 0.0477461 0.6025 128 128 128
0.118843 0.0476632 0.601454 128 128 128
0.119664 0.0476632 0.601454 128 128 128
0.120486 0.0476632 0.601454 128 128 128
0.122156 0.0479965 0.60566 128 128 128
0.122554 0.0478293 0.603549 128 128 128
0.123594 0.0479128 0.604603 128 128 128
0.123987 0.0477461 0.6025 128 128 128
0.12481 0.0477461 0.6025 128 128 128
0.125415 0.0476632 0.601454 128 128 128
0.126456 0.0477461 0.6025 128 128 128
0.12817 0.0480806 0.60672 128 128 128
0.129909 0.0484198 0.611001 128 128 128
0.129374 0.0479128 0.604603 128 128 128
0.129074 0.0474983 0.599373 128 128 128
0.129445 0.0473345 0.597306 128 128 128
0.13026 0.0473345 0.597306 128 128 128
0.131076 0.0473345 0.597306 128 128 128
0.133971 0.0480806 0.60672 128 128 128
0.1348 0.0480806 0.60672 128 128 128
0.135391 0.0479965 0.60566 128 128 128
0.136218 0.0479965 0.60566 128 128 128
0.137046 0.0479965 0.60566 128 128 128
0.140576 0.0489377 0.617535 128 128 128
0.142691 0.0493777 0.623089 128 128 128
0.37646 0.1295 1.63414 128 128 128
0.384128 0.131359 1.65759 128 128 128
0.145828 0.048165 0.607785 128 128 128
0.148218 0.0486773 0.614251 128 128 128
0.148793 0.0485912 0.613163 128 128 128
0.149896 0.0486773 0.614251 128 128 128
0.150468 0.0485912 0.613163 128 128 128
0.148674 0.0477461 0.6025 128 128 128
0.147445 0.0470909 0.594232 128 128 128
0.147498 0.0468499 0.59119 128 128 128
0.136005 0.042964 0.542156 128 128 128
0.136532 0.0428969 0.541308 128 128 128
0.136843 0.0427633 0.539622 128 128 128
0.13758 0.0427633 0.539622 128 128 128
0.13875 0.0428969 0.541308 128 128 128
0.139707 0.042964 0.542156 128 128 128
0.140889 0.0430989 0.543858 128 128 128
0.143433 0.0436471 0.550775 128 128 128
0.157726 0.0477461 0.6025 128 128 128
0.158549 0.0477461 0.6025 128 128 128
0.159372 0.0477461 0.6025 128 128 128
0.159916 0.0476632 0.601454 128 128 128
0.160738 0.0476632 0.601454 128 128 128
0.161 0.0474983 0.599373 128 128 128
0.162099 0.0475806 0.600411 128 128 128
0.160144 0.0467701 0.590183 128 128 128
0.16095 0.0467701 0.590183 128 128 128
0.161756 0.0467701 0.590183 128 128 128
0.169794 0.0488506 0.616437 128 128 128
0.16736 0.0479128 0.604603 128 128 128
0.16731 0.0476632 0.601454 128 128 128
0.168131 0.0476632 0.601454 128 128 128
0.16866 0.0475806 0.600411 128 128 128
0.16948 0.0475806 0.600411 128 128 128
0.170005 0.0474983 0.599373 128 128 128
-0.694574 0.0590427 0.732426 128 128 128
-0.687757 0.0585476 0.726284 128 128 128
-0.691112 0.0589181 0.73088 128 128 128
-0.697471 0.0595462 0.738672 128 128 128
-0.739006 0.0631837 0.783795 128 128 128
-0.763858 0.0654033 0.811329 128 128 128
-0.76275 0.0654033 0.811329 128 128 128
-0.754573 0.0647963 0.803799 128 128 128
-0.751731 0.0646463 0.801938 128 128 128
-0.742048 0.0639066 0.792763 128 128 128
-0.722772 0.0623375 0.773298 128 128 128
-0.716915 0.0619228 0.768154 128 128 128
-0.709572 0.0613784 0.761401 128 128 128
-0.700831 0.0607113 0.753125 128 128 128
-0.695268 0.0603179 0.748245 128 128 128
-0.69275 0.0601879 0.746632 128 128 128
-0.685818 0.0596735 0.740251 128 128 128
-0.69071 0.0601879 0.746632 128 128 128
-0.704882 0.0615136 0.763078 128 128 128
-0.70384 0.0615136 0.763078 128 128 128
-0.702797 0.0615136 0.763078 128 128 128
-0.689604 0.0604485 0.749864 128 128 128
-0.675422 0.0592934 0.735536 128 128 128
-0.665934 0.0585476 0.726284 128 128 128
-0.660786 0.0581816 0.721744 128 128 128
-0.662561 0.0584251 0.724764 128 128 128
-0.667154 0.0589181 0.73088 128 128 128
-0.674696 0.0596735 0.740251 128 128 128
-0.676577 0.0599296 0.743428 128 128 128
-0.675561 0.0599296 0.743428 128 128 128
-0.671663 0.0596735 0.740251 128 128 128
-0.669222 0.0595462 0.738672 128 128 128
-0.669641 0.0596735 0.740251 128 128 128
-0.677314 0.0604485 0.749864 128 128 128
-0.67923 0.0607113 0.753125 128 128 128
-0.679679 0.0608435 0.754765 128 128 128
-0.672785 0.0603179 0.748245 128 128 128
-0.668873 0.0600585 0.745027 128 128 128
-0.667856 0.0600585 0.745027 128 128 128
-0.668275 0.0601879 0.746632 128 128 128
-0.671598 0.0605796 0.751491 128 128 128
-0.682414 0.0616494 0.764762 128 128 128
-0.681369 0.0616494 0.764762 128 128 128
-0.68183 0.0617858 0.766454 128 128 128
-0.639099 0.0581816 0.721744 128 128 128
-0.616287 0.0561915 0.697057 128 128 128
-0.60201 0.0549748 0.681963 128 128 128
-0.601079 0.0549748 0.681963 128 128 128
-0.678412 0.0623375 0.773298 128 128 128
-0.659686 0.0607113 0.753125 128 128 128
-0.657228 0.0605796 0.751491 128 128 128
-0.654782 0.0604485 0.749864 128 128 128
-0.652346 0.0603179 0.748245 128 128 128
-0.64992 0.0601879 0.746632 128 128 128
-0.646115 0.0599296 0.743428 128 128 128
-0.6451 0.0599296 0.743428 128 128 128
-0.642705 0.0598013 0.741836 128 128 128
-0.641692 0.0598013 0.741836 128 128 128
-0.642054 0.0599296 0.743428 128 128 128
-0.641038 0.0599296 0.743428 128 128 128
-0.638652 0.0598013 0.741836 128 128 128
-0.630885 0.0591678 0.733977 128 128 128
-0.625904 0.0587941 0.729342 128 128 128
-0.619689 0.0583031 0.723251 128 128 128
-0.611047 0.0575818 0.714304 128 128 128
-0.610072 0.0575818 0.714304 128 128 128
-0.60043 0.0567626 0.704141 128 128 128
-0.605623 0.0573454 0.71137 128 128 128
-0.604652 0.0573454 0.71137 128 128 128
-0.609942 0.0579402 0.71875 128 128 128
-0.611498 0.0581816 0.721744 128 128 128
-0.610512 0.0581816 0.721744 128 128 128
-0.606997 0.0579402 0.71875 128 128 128
-0.603511 0.0577008 0.71578 128 128 128
-0.600054 0.0574634 0.712834 128 128 128
-0.599081 0.0574634 0.712834 128 128 128
-0.625118 0.0600585 0.745027 128 128 128
-0.564038 0.0545453 0.676635 128 128 128
-0.552326 0.0535004 0.663673 128 128 128
-0.550365 0.0533981 0.662404 128 128 128
-0.54946 0.0533981 0.662404 128 128 128
-0.538632 0.0526928 0.653655 128 128 128
-0.471078 0.0461606 0.572624 128 128 128
-0.470296 0.0461606 0.572624 128 128 128
-0.471071 0.0463137 0.574523 128 128 128
-0.473427 0.046623 0.578359 128 128 128
-0.387271 0.0541225 0.67139 128 128 128
-0.407687 0.0571108 0.708461 128 128 128
-0.406719 0.0571108 0.708461 128 128 128
-0.391346 0.0550832 0.683308 128 128 128
-0.387357 0.054652 0.67796 128 128 128
-0.385676 0.0545453 0.676635 128 128 128
-0.384752 0.0545453 0.676635 128 128 128
-0.38308 0.054439 0.675316 128 128 128
-0.381414 0.0543331 0.674003 128 128 128
-0.380493 0.0543331 0.674003 128 128 128
-0.378101 0.0541225 0.67139 128 128 128
-0.373565 0.053603 0.664947 128 128 128
-0.372656 0.053603 0.664947 128 128 128
-0.373901 0.0539135 0.668798 128 128 128
-0.37516 0.0542275 0.672694 128 128 128
-0.37497 0.0543331 0.674003 128 128 128
-0.374049 0.0543331 0.674003 128 128 128
-0.370247 0.0539135 0.668798 128 128 128
-0.363717 0.0530935 0.658626 128 128 128
-0.359401 0.0525936 0.652424 128 128 128
-0.356496 0.0522981 0.648759 128 128 128
-0.356946 0.0524947 0.651198 128 128 128
-0.363575 0.053603 0.664947 128 128 128
-0.363364 0.0537061 0.666226 128 128 128
-0.359002 0.0531946 0.659881 128 128 128
-0.356066 0.0528924 0.656131 128 128 128
-0.354498 0.0527924 0.654891 128 128 128
-0.352937 0.0526928 0.653655 128 128 128
-0.352044 0.0526928 0.653655 128 128 128
-0.352481 0.0528924 0.656131 128 128 128
-0.352252 0.0529928 0.657376 128 128 128
-0.352022 0.0530935 0.658626 128 128 128
-0.351792 0.0531946 0.659881 128 128 128
-0.352907 0.0535004 0.663673 128 128 128
-0.356094 0.0541225 0.67139 128 128 128
-0.355866 0.0542275 0.672694 128 128 128
-0.354948 0.0542275 0.672694 128 128 128
-0.354029 0.0542275 0.672694 128 128 128
-0.351065 0.0539135 0.668798 128 128 128
-0.347468 0.0535004 0.663673 128 128 128
-0.345239 0.0532962 0.66114 128 128 128
-0.341728 0.0528924 0.656131 128 128 128
-0.340831 0.0528924 0.656131 128 128 128
-0.339935 0.0528924 0.656131 128 128 128
-0.340328 0.0530935 0.658626 128 128 128
-0.160244 0.0496925 0.616437 128 128 128
-0.159687 0.0497811 0.617535 128 128 128
-0.158843 0.0497811 0.617535 128 128 128
-0.158 0.0497811 0.617535 128 128 128
-0.15632 0.0495163 0.614251 128 128 128
-0.153307 0.0488238 0.60566 128 128 128
-0.145176 0.0472541 0.586188 128 128 128
-0.143404 0.0469365 0.582248 128 128 128
-0.143574 0.0472541 0.586188 128 128 128
-0.153417 0.0507767 0.629886 128 128 128
-0.152557 0.0507767 0.629886 128 128 128
-0.151421 0.0506846 0.628743 128 128 128
-0.148408 0.0499592 0.619745 128 128 128
-0.147298 0.04987 0.618638 128 128 128
-0.146453 0.04987 0.618638 128 128 128
-0.14613 0.0500487 0.620855 128 128 128
-0.145282 0.0500487 0.620855 128 128 128
-0.143918 0.04987 0.618638 128 128 128
-0.143073 0.04987 0.618638 128 128 128
-0.154356 0.0541225 0.67139 128 128 128
-0.137456 0.0484847 0.601454 128 128 128
-0.13759 0.0488238 0.60566 128 128 128
-0.136762 0.0488238 0.60566 128 128 128
-0.13582 0.0490812 0.608853 128 128 128
-0.136186 0.0495163 0.614251 128 128 128
-0.13607 0.0497811 0.617535 128 128 128
-0.135468 0.04987 0.618638 128 128 128
-0.135106 0.0500487 0.620855 128 128 128
-0.134499 0.0501386 0.62197 128 128 128
-0.135105 0.0506846 0.628743 128 128 128
-0.134246 0.0506846 0.628743 128 128 128
-0.132188 0.0502288 0.623089 128 128 128
-0.133498 0.0510552 0.633341 128 128 128
-0.1227 0.0488238 0.60566 128 128 128
-0.121873 0.0488238 0.60566 128 128 128
-0.184635 0.0744725 0.923833 128 128 128
-0.18535 0.0752754 0.933793 128 128 128
-0.157341 0.066652 0.826819 128 128 128
-0.113436 0.0484007 0.600411 128 128 128
-0.1136 0.0488238 0.60566 128 128 128
-0.113969 0.0493413 0.61208 128 128 128
-0.113534 0.0495163 0.614251 128 128 128
-0.112695 0.0495163 0.614251 128 128 128
-0.111658 0.0494287 0.613163 128 128 128
-0.110625 0.0493413 0.61208 128 128 128
-0.109789 0.0493413 0.61208 128 128 128
-0.109533 0.0496042 0.615342 128 128 128
-0.108886 0.0496925 0.616437 128 128 128
-0.108624 0.0499592 0.619745 128 128 128
-0.107778 0.0499592 0.619745 128 128 128
-0.10655 0.0497811 0.617535 128 128 128
-0.105331 0.0496042 0.615342 128 128 128
-0.103754 0.0492543 0.611001 128 128 128
-0.101664 0.0486536 0.603549 128 128 128
-0.10049 0.0484847 0.601454 128 128 128
-0.0998414 0.048569 0.6025 128 128 128
-0.0988466 0.0484847 0.601454 128 128 128
-0.0980251 0.0484847 0.601454 128 128 128
-0.0970352 0.0484007 0.600411 128 128 128
-0.0963822 0.0484847 0.601454 128 128 128
-0.0958937 0.0486536 0.603549 128 128 128
-0.0957365 0.0489951 0.607785 128 128 128
-0.0962574 0.0496925 0.616437 128 128 128
-0.0954154 0.0496925 0.616437 128 128 128
-0.0945735 0.0496925 0.616437 128 128 128
-0.092905 0.0492543 0.611001 128 128 128
-0.0901623 0.0482335 0.598337 128 128 128
-0.0893451 0.0482335 0.598337 128 128 128
-0.0885279 0.0482335 0.598337 128 128 128
-0.0897252 0.0493413 0.61208 128 128 128
-0.126335 0.0721633 0.895187 128 128 128
-0.125113 0.0721633 0.895187 128 128 128
-0.0906342 0.0527924 0.654891 128 128 128
-0.0775968 0.0496042 0.615342 128 128 128
-0.0762148 0.0492543 0.611001 128 128 128
-0.0751154 0.0490812 0.608853 128 128 128
-0.0742838 0.0490812 0.608853 128 128 128
-0.0734522 0.0490812 0.608853 128 128 128
-0.0723663 0.0489093 0.60672 128 128 128
-0.0715376 0.0489093 0.60672 128 128 128
-0.070833 0.0489951 0.607785 128 128 128
-0.0709994 0.0496925 0.616437 128 128 128
-0.0719498 0.050962 0.632185 128 128 128
-0.0712163 0.0510552 0.633341 128 128 128
-0.0704801 0.0511487 0.634501 128 128 128
-0.0694862 0.0510552 0.633341 128 128 128
-0.0686212 0.0510552 0.633341 128 128 128
-0.0678803 0.0511487 0.634501 128 128 128
-0.0670137 0.0511487 0.634501 128 128 128
-0.064036 0.0495163 0.614251 128 128 128
-0.0630852 0.0494287 0.613163 128 128 128
-0.0621378 0.0493413 0.61208 128 128 128
-0.0608716 0.0489951 0.607785 128 128 128
-0.059416 0.0484847 0.601454 128 128 128
-0.0583918 0.0483169 0.599373 128 128 128
-0.0579744 0.0486536 0.603549 128 128 128
-0.0580604 0.0494287 0.613163 128 128 128
-0.057223 0.0494287 0.613163 128 128 128
-0.0565858 0.0496042 0.615342 128 128 128
-0.056044 0.04987 0.618638 128 128 128
-0.0551991 0.04987 0.618638 128 128 128
-0.0543541 0.04987 0.618638 128 128 128
-0.0534138 0.0497811 0.617535 128 128 128
-0.0522907 0.0495163 0.614251 128 128 128
-0.05127 0.0493413 0.61208 128 128 128
-0.0499924 0.0489093 0.60672 128 128 128
-0.0489067 0.0486536 0.603549 128 128 128
-0.0480824 0.0486536 0.603549 128 128 128
-0.0473406 0.0487386 0.604603 128 128 128
-0.0470901 0.0493413 0.61208 128 128 128
-0.0462541 0.0493413 0.61208 128 128 128
-0.045338 0.0492543 0.611001 128 128 128
-0.0442692 0.0489951 0.607785 128 128 128
-0.0433631 0.0489093 0.60672 128 128 128
-0.0425344 0.0489093 0.60672 128 128 128
-0.0416328 0.0488238 0.60566 128 128 128
-0.0405927 0.048569 0.6025 128 128 128
-0.0397008 0.0484847 0.601454 128 128 128
-0.0389469 0.048569 0.6025 128 128 128
-0.038324 0.0488238 0.60566 128 128 128
-0.0375624 0.0489093 0.60672 128 128 128
-0.0367338 0.0489093 0.60672 128 128 128
-0.0357798 0.0487386 0.604603 128 128 128
-0.0348931 0.0486536 0.603549 128 128 128
-0.0340095 0.048569 0.6025 128 128 128
-0.0333607 0.0488238 0.60566 128 128 128
-0.0328204 0.0492543 0.611001 128 128 128
-0.0319858 0.0492543 0.611001 128 128 128
-0.0311513 0.0492543 0.611001 128 128 128
-0.0301044 0.0489093 0.60672 128 128 128
-0.0283974 0.0488238 0.60566 128 128 128
-0.0273787 0.0484847 0.601454 128 128 128
-0.0265572 0.0484847 0.601454 128 128 128
-0.0257358 0.0484847 0.601454 128 128 128
-0.0250447 0.0487386 0.604603 128 128 128
-0.0242613 0.0488238 0.60566 128 128 128
-0.0233932 0.0487386 0.604603 128 128 128
-0.0224499 0.0484847 0.601454 128 128 128
-0.0216284 0.0484847 0.601454 128 128 128
-0.0208431 0.048569 0.6025 128 128 128
-0.0200551 0.0486536 0.603549 128 128 128
-0.0192308 0.0486536 0.603549 128 128 128
-0.0184708 0.0488238 0.60566 128 128 128
-0.0175821 0.0486536 0.603549 128 128 128
-0.0166131 0.0482335 0.598337 128 128 128
-0.0157686 0.0481503 0.597306 128 128 128
-0.0149528 0.0481503 0.597306 128 128 128
-0.0142352 0.0484847 0.601454 128 128 128
-0.0134371 0.048569 0.6025 128 128 128
-0.0126361 0.0486536 0.603549 128 128 128
-0.0118324 0.0487386 0.604603 128 128 128
-0.0111035 0.0491676 0.609925 128 128 128
-0.0102705 0.0491676 0.609925 128 128 128
-0.00938786 0.0489093 0.60672 128 128 128
-0.00852933 0.0487386 0.604603 128 128 128
-0.00770356 0.0487386 0.604603 128 128 128
-0.000299302 0.0537061 0.666226 128 128 128
0.000608295 0.0535004 0.663673 128 128 128
0.00151474 0.0535004 0.663673 128 128 128
0.00240736 0.0531946 0.659881 128 128 128
0.00330234 0.0530935 0.658626 128 128 128
0.0042099 0.0531946 0.659881 128 128 128
0.00644706 0.0496042 0.615342 128 128 128
0.00717284 0.0488238 0.60566 128 128 128
0.00800005 0.0488238 0.60566 128 128 128
0.00898434 0.0496925 0.616437 128 128 128
0.00973962 0.0492543 0.611001 128 128 128
0.0103729 0.0483169 0.599373 128 128 128
0.0110012 0.0474952 0.589179 128 128 128
0.0118059 0.0474952 0.589179 128 128 128
0.0126106 0.0474952 0.589179 128 128 128
0.0134841 0.0477388 0.592201 128 128 128
0.0143913 0.0480675 0.596278 128 128 128
0.0151536 0.0479026 0.594232 128 128 128
0.0157491 0.0472541 0.586188 128 128 128
0.0165497 0.0472541 0.586188 128 128 128
0.0174685 0.0475761 0.590183 128 128 128
0.0185913 0.0484007 0.600411 128 128 128
0.0194114 0.0484007 0.600411 128 128 128
0.0202314 0.0484007 0.600411 128 128 128
0.021015 0.0483169 0.599373 128 128 128
0.021796 0.0482335 0.598337 128 128 128
0.0226132 0.0482335 0.598337 128 128 128
0.0234304 0.0482335 0.598337 128 128 128
0.0242476 0.0482335 0.598337 128 128 128
0.0250648 0.0482335 0.598337 128 128 128
0.0259717 0.0484007 0.600411 128 128 128
0.0267918 0.0484007 0.600411 128 128 128
0.0276118 0.0484007 0.600411 128 128 128
0.0284812 0.0484847 0.601454 128 128 128
0.0296112 0.0489951 0.607785 128 128 128
0.0302291 0.0486536 0.603549 128 128 128
0.0309995 0.048569 0.6025 128 128 128
0.0317121 0.0484007 0.600411 128 128 128
0.0324197 0.0482335 0.598337 128 128 128
0.0332945 0.0483169 0.599373 128 128 128
0.0341131 0.0483169 0.599373 128 128 128
0.035053 0.0484847 0.601454 128 128 128
0.0359369 0.048569 0.6025 128 128 128
0.0368881 0.0487386 0.604603 128 128 128
0.0377138 0.0487386 0.604603 128 128 128
0.0388105 0.0490812 0.608853 128 128 128
0.0399936 0.0495163 0.614251 128 128 128
0.0408325 0.0495163 0.614251 128 128 128
0.0416715 0.0495163 0.614251 128 128 128
0.0425104 0.0495163 0.614251 128 128 128
0.042893 0.0489951 0.607785 128 128 128
0.0434185 0.0486536 0.603549 128 128 128
0.0440892 0.0484847 0.601454 128 128 128
0.0449106 0.0484847 0.601454 128 128 128
0.0462135 0.0489951 0.607785 128 128 128
0.0472093 0.0491676 0.609925 128 128 128
0.0477064 0.0488238 0.60566 128 128 128
0.0482803 0.048569 0.6025 128 128 128
0.048764 0.0482335 0.598337 128 128 128
0.0489055 0.0475761 0.590183 128 128 128
0.0494588 0.0473342 0.587182 128 128 128
0.050091 0.0471743 0.585198 128 128 128
0.0507189 0.0470155 0.583228 128 128 128
0.0510003 0.0465453 0.577396 128 128 128
0.0511917 0.0460085 0.570737 128 128 128
0.0518857 0.0459329 0.569798 128 128 128
0.0525775 0.0458575 0.568863 128 128 128
0.0533545 0.0458575 0.568863 128 128 128
0.0543994 0.0460845 0.571679 128 128 128
0.0580542 0.0484847 0.601454 128 128 128
0.0590808 0.0486536 0.603549 128 128 128
0.0596971 0.0484847 0.601454 128 128 128
0.0601012 0.0481503 0.597306 128 128 128
0.0606035 0.0479026 0.594232 128 128 128
0.0609966 0.0475761 0.590183 128 128 128
0.0614885 0.0473342 0.587182 128 128 128
0.0622905 0.0473342 0.587182 128 128 128
0.0641802 0.0481503 0.597306 128 128 128
0.0652209 0.0483169 0.599373 128 128 128
0.0659255 0.0482335 0.598337 128 128 128
0.0662848 0.0479026 0.594232 128 128 128
0.0670964 0.0479026 0.594232 128 128 128
0.0677917 0.0478205 0.593215 128 128 128
0.0684847 0.0477388 0.592201 128 128 128
0.0694122 0.0478205 0.593215 128 128 128
0.0704637 0.0479849 0.595253 128 128 128
0.0722701 0.0486536 0.603549 128 128 128
0.0720897 0.0479849 0.595253 128 128 128
0.0729027 0.0479849 0.595253 128 128 128
0.0739699 0.0481503 0.597306 128 128 128
0.0749149 0.0482335 0.598337 128 128 128
0.0757321 0.0482335 0.598337 128 128 128
0.0766817 0.0483169 0.599373 128 128 128
0.0777694 0.0484847 0.601454 128 128 128
0.0785909 0.0484847 0.601454 128 128 128
0.0794124 0.0484847 0.601454 128 128 128
0.0802339 0.0484847 0.601454 128 128 128
0.082197 0.0491676 0.609925 128 128 128
0.08303 0.0491676 0.609925 128 128 128
0.0828421 0.048569 0.6025 128 128 128
0.0835197 0.0484847 0.601454 128 128 128
0.0840494 0.0483169 0.599373 128 128 128
0.084868 0.0483169 0.599373 128 128 128
0.0858351 0.0484007 0.600411 128 128 128
0.0868056 0.0484847 0.601454 128 128 128
0.0876271 0.0484847 0.601454 128 128 128
0.0884486 0.0484847 0.601454 128 128 128
0.0883497 0.0479849 0.595253 128 128 128
0.0876566 0.0471743 0.585198 128 128 128
0.0880099 0.0469365 0.582248 128 128 128
0.0888051 0.0469365 0.582248 128 128 128
0.0900544 0.0471743 0.585198 128 128 128
0.0946926 0.0491676 0.609925 128 128 128
0.0950237 0.0489093 0.60672 128 128 128
0.0955178 0.0487386 0.604603 128 128 128
0.0960085 0.048569 0.6025 128 128 128
0.0964957 0.0484007 0.600411 128 128 128
0.0968124 0.0481503 0.597306 128 128 128
0.0967938 0.0477388 0.592201 128 128 128
0.0974361 0.0476573 0.59119 128 128 128
0.0980761 0.0475761 0.590183 128 128 128
0.0992203 0.0477388 0.592201 128 128 128
0.100372 0.0479026 0.594232 128 128 128
0.101358 0.0479849 0.595253 128 128 128
0.102347 0.0480675 0.596278 128 128 128
0.103339 0.0481503 0.597306 128 128 128
0.103797 0.0479849 0.595253 128 128 128
0.103719 0.0475761 0.590183 128 128 128
0.104347 0.0474952 0.589179 128 128 128
0.105152 0.0474952 0.589179 128 128 128
0.105956 0.0474952 0.589179 128 128 128
0.106761 0.0474952 0.589179 128 128 128
0.107566 0.0474952 0.589179 128 128 128
0.109865 0.0481503 0.597306 128 128 128
0.111257 0.0484007 0.600411 128 128 128
0.112271 0.0484847 0.601454 128 128 128
0.112897 0.0484007 0.600411 128 128 128
0.113324 0.0482335 0.598337 128 128 128
0.114141 0.0482335 0.598337 128 128 128
0.116569 0.0489093 0.60672 128 128 128
0.118855 0.0495163 0.614251 128 128 128
0.119482 0.0494287 0.613163 128 128 128
0.118227 0.048569 0.6025 128 128 128
0.118432 0.0483169 0.599373 128 128 128
0.11925 0.0483169 0.599373 128 128 128
0.120069 0.0483169 0.599373 128 128 128
0.121518 0.048569 0.6025 128 128 128
0.122129 0.0484847 0.601454 128 128 128
0.123164 0.048569 0.6025 128 128 128
0.123772 0.0484847 0.601454 128 128 128
0.124593 0.0484847 0.601454 128 128 128
0.125415 0.0484847 0.601454 128 128 128
0.126236 0.0484847 0.601454 128 128 128
0.129074 0.0492543 0.611001 128 128 128
0.1306 0.0495163 0.614251 128 128 128
0.130743 0.0492543 0.611001 128 128 128
0.129074 0.0483169 0.599373 128 128 128
0.128558 0.0478205 0.593215 128 128 128
0.12762 0.0471743 0.585198 128 128 128
0.131986 0.0484847 0.601454 128 128 128
0.134206 0.0489951 0.607785 128 128 128
0.1348 0.0489093 0.60672 128 128 128
0.135155 0.0487386 0.604603 128 128 128
0.135744 0.0486536 0.603549 128 128 128
0.136806 0.0487386 0.604603 128 128 128
0.137873 0.0488238 0.60566 128 128 128
0.143206 0.0504101 0.625338 128 128 128
0.381864 0.133623 1.65759 128 128 128
0.384128 0.133623 1.65759 128 128 128
0.145828 0.0489951 0.607785 128 128 128
0.147694 0.0493413 0.61208 128 128 128
0.147747 0.0490812 0.608853 128 128 128
0.148579 0.0490812 0.608853 128 128 128
0.147851 0.048569 0.6025 128 128 128
0.146634 0.0479026 0.594232 128 128 128
0.146691 0.0476573 0.59119 128 128 128
0.146747 0.0474146 0.588179 128 128 128
0.146555 0.0470948 0.584211 128 128 128
0.147602 0.0471743 0.585198 128 128 128
0.147653 0.0469365 0.582248 128 128 128
0.138967 0.0437045 0.542156 128 128 128
0.139707 0.0437045 0.542156 128 128 128
0.140889 0.0438417 0.543858 128 128 128
0.160247 0.0496042 0.615342 128 128 128
0.161052 0.0490812 0.608853 128 128 128
0.159916 0.0484847 0.601454 128 128 128
0.159905 0.0482335 0.598337 128 128 128
0.159894 0.0479849 0.595253 128 128 128
0.159338 0.0475761 0.590183 128 128 128
0.159872 0.0474952 0.589179 128 128 128
0.160676 0.0474952 0.589179 128 128 128
0.161207 0.0474146 0.588179 128 128 128
0.16201 0.0474146 0.588179 128 128 128
0.163368 0.0475761 0.590183 128 128 128
0.16587 0.0480675 0.596278 128 128 128
0.16726 0.0482335 0.598337 128 128 128
0.16866 0.0484007 0.600411 128 128 128
0.16948 0.0484007 0.600411 128 128 128
-0.697523 0.060298 0.735536 128 128 128
-0.687757 0.0595395 0.726284 128 128 128
-0.689657 0.0597902 0.729342 128 128 128
-0.690114 0.0599164 0.73088 128 128 128
-0.753476 0.0658941 0.803799 128 128 128
-0.740353 0.064841 0.790953 128 128 128
-0.724388 0.0635355 0.775028 128 128 128
-0.713749 0.0626939 0.764762 128 128 128
-0.704924 0.0620095 0.756413 128 128 128
-0.69629 0.0613399 0.748245 128 128 128
-0.693769 0.0612077 0.746632 128 128 128
-0.69275 0.0612077 0.746632 128 128 128
-0.69173 0.0612077 0.746632 128 128 128
-0.69071 0.0612077 0.746632 128 128 128
-0.695688 0.0617399 0.753125 128 128 128
-0.696172 0.0618744 0.754765 128 128 128
-0.687651 0.0612077 0.746632 128 128 128
-0.67073 0.0597902 0.729342 128 128 128
-0.666926 0.0595395 0.726284 128 128 128
-0.661772 0.0591674 0.721744 128 128 128
-0.660786 0.0591674 0.721744 128 128 128
-0.6598 0.0591674 0.721744 128 128 128
-0.661571 0.059415 0.724764 128 128 128
-0.666156 0.0599164 0.73088 128 128 128
-0.673685 0.0606845 0.740251 128 128 128
-0.672674 0.0606845 0.740251 128 128 128
-0.667385 0.060298 0.735536 128 128 128
-0.667798 0.0604263 0.737101 128 128 128
-0.666791 0.0604263 0.737101 128 128 128
-0.674394 0.0612077 0.746632 128 128 128
-0.673374 0.0612077 0.746632 128 128 128
-0.670909 0.061076 0.745027 128 128 128
-0.668454 0.060945 0.743428 128 128 128
-0.664586 0.0606845 0.740251 128 128 128
-0.65656 0.060043 0.732426 128 128 128
-0.6528 0.0597902 0.729342 128 128 128
-0.645014 0.0591674 0.721744 128 128 128
-0.644028 0.0591674 0.721744 128 128 128
-0.679869 0.0625558 0.763078 128 128 128
-0.640085 0.0591674 0.721744 128 128 128
-0.631209 0.0584369 0.712834 128 128 128
-0.617529 0.0572588 0.698462 128 128 128
-0.615335 0.0571436 0.697057 128 128 128
-0.616865 0.0573745 0.699873 128 128 128
-0.680988 0.0635355 0.775028 128 128 128
-0.65361 0.061076 0.745027 128 128 128
-0.652592 0.061076 0.745027 128 128 128
-0.655806 0.0614726 0.749864 128 128 128
-0.654782 0.0614726 0.749864 128 128 128
-0.65094 0.0612077 0.746632 128 128 128
-0.647131 0.060945 0.743428 128 128 128
-0.641982 0.0605551 0.738672 128 128 128
-0.638252 0.060298 0.735536 128 128 128
-0.641332 0.0606845 0.740251 128 128 128
-0.640321 0.0606845 0.740251 128 128 128
-0.640679 0.0608145 0.741836 128 128 128
-0.638299 0.0606845 0.740251 128 128 128
-0.634576 0.0604263 0.737101 128 128 128
-0.630885 0.0601702 0.733977 128 128 128
-0.625904 0.0597902 0.729342 128 128 128
-0.612023 0.0585574 0.714304 128 128 128
-0.577696 0.0553613 0.675316 128 128 128
-0.576774 0.0553613 0.675316 128 128 128
-0.575851 0.0553613 0.675316 128 128 128
-0.597041 0.0574906 0.70129 128 128 128
-0.604652 0.0583169 0.71137 128 128 128
-0.607422 0.0586784 0.71578 128 128 128
-0.606444 0.0586784 0.71578 128 128 128
-0.605467 0.0586784 0.71578 128 128 128
-0.604489 0.0586784 0.71578 128 128 128
-0.603511 0.0586784 0.71578 128 128 128
-0.595156 0.0579599 0.707015 128 128 128
-0.587002 0.0572588 0.698462 128 128 128
-0.586048 0.0572588 0.698462 128 128 128
-0.577366 0.0566873 0.691492 128 128 128
-0.565142 0.055578 0.67796 128 128 128
-0.563114 0.0554694 0.676635 128 128 128
-0.562189 0.0554694 0.676635 128 128 128
-0.565685 0.0559062 0.681963 128 128 128
-0.560512 0.055578 0.67796 128 128 128
-0.471855 0.0470984 0.574523 128 128 128
-0.475009 0.0474922 0.579327 128 128 128
-0.476609 0.0477317 0.582248 128 128 128
-0.371435 0.0527888 0.643936 128 128 128
-0.373331 0.0531842 0.648759 128 128 128
-0.389209 0.055578 0.67796 128 128 128
-0.387524 0.0554694 0.676635 128 128 128
-0.385096 0.0552536 0.674003 128 128 128
-0.381209 0.0548269 0.668798 128 128 128
-0.37666 0.0543028 0.662404 128 128 128
-0.375038 0.0541992 0.66114 128 128 128
-0.372712 0.0539931 0.658626 128 128 128
-0.371107 0.0538906 0.657376 128 128 128
-0.370209 0.0538906 0.657376 128 128 128
-0.368612 0.0537886 0.656131 128 128 128
-0.369817 0.0540959 0.659881 128 128 128
-0.368916 0.0540959 0.659881 128 128 128
-0.371553 0.0546161 0.666226 128 128 128
-0.370643 0.0546161 0.666226 128 128 128
-0.367612 0.0543028 0.662404 128 128 128
-0.363924 0.0538906 0.657376 128 128 128
-0.360972 0.0535856 0.653655 128 128 128
-0.357382 0.0531842 0.648759 128 128 128
-0.355829 0.0530848 0.647546 128 128 128
-0.354945 0.0530848 0.647546 128 128 128
-0.350782 0.0525932 0.641551 128 128 128
-0.357858 0.0537886 0.656131 128 128 128
-0.356287 0.0536869 0.654891 128 128 128
-0.352726 0.053284 0.649976 128 128 128
-0.349869 0.0529857 0.646338 128 128 128
-0.347689 0.0527888 0.643936 128 128 128
-0.348103 0.0529857 0.646338 128 128 128
-0.347869 0.0530848 0.647546 128 128 128
-0.348287 0.053284 0.649976 128 128 128
-0.348052 0.0533841 0.651198 128 128 128
-0.347163 0.0533841 0.651198 128 128 128
-0.346273 0.0533841 0.651198 128 128 128
-0.352001 0.0544068 0.663673 128 128 128
-0.355177 0.0550394 0.67139 128 128 128
-0.35426 0.0550394 0.67139 128 128 128
-0.353343 0.0550394 0.67139 128 128 128
-0.351065 0.0548269 0.668798 128 128 128
-0.346142 0.0541992 0.66114 128 128 128
-0.342624 0.0537886 0.656131 128 128 128
-0.341728 0.0537886 0.656131 128 128 128
-0.340831 0.0537886 0.656131 128 128 128
-0.339935 0.0537886 0.656131 128 128 128
-0.1608 0.0504447 0.615342 128 128 128
-0.15996 0.0504447 0.615342 128 128 128
-0.159402 0.0505344 0.616437 128 128 128
-0.158843 0.0506245 0.617535 128 128 128
-0.157719 0.0505344 0.616437 128 128 128
-0.154134 0.049651 0.60566 128 128 128
-0.153039 0.0495643 0.604603 128 128 128
-0.148489 0.0488819 0.596278 128 128 128
-0.1442 0.0477317 0.582248 128 128 128
-0.141502 0.0470984 0.574523 128 128 128
-0.140717 0.0470984 0.574523 128 128 128
-0.142292 0.0478927 0.584211 128 128 128
-0.142941 0.0483822 0.590183 128 128 128
-0.140696 0.0478927 0.584211 128 128 128
-0.146572 0.0501773 0.61208 128 128 128
-0.145736 0.0501773 0.61208 128 128 128
-0.142881 0.049478 0.603549 128 128 128
-0.142056 0.049478 0.603549 128 128 128
-0.141232 0.049478 0.603549 128 128 128
-0.140408 0.049478 0.603549 128 128 128
-0.139583 0.049478 0.603549 128 128 128
-0.138759 0.049478 0.603549 128 128 128
-0.137456 0.0493062 0.601454 128 128 128
-0.136634 0.0493062 0.601454 128 128 128
-0.135813 0.0493062 0.601454 128 128 128
-0.135698 0.0495643 0.604603 128 128 128
-0.134637 0.049478 0.603549 128 128 128
-0.134281 0.049651 0.60566 128 128 128
-0.135347 0.0503552 0.614251 128 128 128
-0.135227 0.0506245 0.617535 128 128 128
-0.134623 0.0507149 0.618638 128 128 128
-0.134258 0.0508967 0.620855 128 128 128
-0.13365 0.0509881 0.62197 128 128 128
-0.131385 0.0504447 0.615342 128 128 128
-0.130313 0.0503552 0.614251 128 128 128
-0.129474 0.0503552 0.614251 128 128 128
-0.138656 0.0553613 0.675316 128 128 128
-0.122669 0.0493062 0.601454 128 128 128
-0.122272 0.049478 0.603549 128 128 128
-0.12166 0.0495643 0.604603 128 128 128
-0.121045 0.049651 0.60566 128 128 128
-0.125943 0.0520153 0.634501 128 128 128
-0.125076 0.0520153 0.634501 128 128 128
-0.124666 0.0522065 0.636833 128 128 128
-0.114628 0.0497379 0.60672 128 128 128
-0.113799 0.0497379 0.60672 128 128 128
-0.112971 0.0497379 0.60672 128 128 128
-0.112933 0.0500888 0.611001 128 128 128
-0.112099 0.0500888 0.611001 128 128 128
-0.111264 0.0500888 0.611001 128 128 128
-0.110235 0.0500006 0.609925 128 128 128
-0.109402 0.0500006 0.609925 128 128 128
-0.108761 0.0500888 0.611001 128 128 128
-0.108117 0.0501773 0.61208 128 128 128
-0.107281 0.0501773 0.61208 128 128 128
-0.106445 0.0501773 0.61208 128 128 128
-0.105609 0.0501773 0.61208 128 128 128
-0.104588 0.0500888 0.611001 128 128 128
-0.10231 0.0493919 0.6025 128 128 128
-0.101311 0.0493062 0.601454 128 128 128
-0.10049 0.0493062 0.601454 128 128 128
-0.0996681 0.0493062 0.601454 128 128 128
-0.0988466 0.0493062 0.601454 128 128 128
-0.0975172 0.0490507 0.598337 128 128 128
-0.0965333 0.0489661 0.597306 128 128 128
-0.0958828 0.0490507 0.598337 128 128 128
-0.0957269 0.0493919 0.6025 128 128 128
-0.0965837 0.0502661 0.613163 128 128 128
-0.0966011 0.0507149 0.618638 128 128 128
-0.0955855 0.0506245 0.617535 128 128 128
-0.0947421 0.0506245 0.617535 128 128 128
-0.0909795 0.0490507 0.598337 128 128 128
-0.0883316 0.0480547 0.586188 128 128 128
-0.0878282 0.0482179 0.588179 128 128 128
-0.0871729 0.0482999 0.589179 128 128 128
-0.0871089 0.0487142 0.594232 128 128 128
-0.0865943 0.0488819 0.596278 128 128 128
-0.0863746 0.0492207 0.600411 128 128 128
-0.0863077 0.0506245 0.617535 128 128 128
-0.0853122 0.0505344 0.616437 128 128 128
-0.0846209 0.0506245 0.617535 128 128 128
-0.0795603 0.0506245 0.617535 128 128 128
-0.0782981 0.0503552 0.614251 128 128 128
-0.0769137 0.0500006 0.609925 128 128 128
-0.0751544 0.0493919 0.6025 128 128 128
-0.0740739 0.0492207 0.600411 128 128 128
-0.0732539 0.0492207 0.600411 128 128 128
-0.0724338 0.0492207 0.600411 128 128 128
-0.0717381 0.0493062 0.601454 128 128 128
-0.0709166 0.0493062 0.601454 128 128 128
-0.0702171 0.0493919 0.6025 128 128 128
-0.0697581 0.049651 0.60566 128 128 128
-0.0690516 0.0497379 0.60672 128 128 128
-0.0700635 0.0510798 0.623089 128 128 128
-0.0703513 0.0519202 0.633341 128 128 128
-0.0693594 0.0518255 0.632185 128 128 128
-0.0686212 0.0519202 0.633341 128 128 128
-0.0676326 0.0518255 0.632185 128 128 128
-0.0633036 0.0491356 0.599373 128 128 128
-0.062485 0.0491356 0.599373 128 128 128
-0.0617732 0.0492207 0.600411 128 128 128
-0.061059 0.0493062 0.601454 128 128 128
-0.0602375 0.0493062 0.601454 128 128 128
-0.0590063 0.0489661 0.597306 128 128 128
-0.0579905 0.0487979 0.595253 128 128 128
-0.0573747 0.0489661 0.597306 128 128 128
-0.0571501 0.049478 0.603549 128 128 128
-0.056721 0.0498252 0.607785 128 128 128
-0.0558909 0.0498252 0.607785 128 128 128
-0.0550608 0.0498252 0.607785 128 128 128
-0.0542307 0.0498252 0.607785 128 128 128
-0.0534005 0.0498252 0.607785 128 128 128
-0.0524784 0.0497379 0.60672 128 128 128
-0.0515594 0.049651 0.60566 128 128 128
-0.0507322 0.049651 0.60566 128 128 128
-0.0496446 0.0493919 0.6025 128 128 128
-0.0487369 0.0493062 0.601454 128 128 128
-0.0478324 0.0492207 0.600411 128 128 128
-0.0470124 0.0492207 0.600411 128 128 128
-0.0465148 0.0495643 0.604603 128 128 128
-0.0460912 0.0500006 0.609925 128 128 128
-0.0452582 0.0500006 0.609925 128 128 128
-0.0441917 0.0497379 0.60672 128 128 128
-0.0432872 0.049651 0.60566 128 128 128
-0.04246 0.049651 0.60566 128 128 128
-0.0414156 0.0493919 0.6025 128 128 128
-0.0403123 0.0490507 0.598337 128 128 128
-0.0393591 0.0488819 0.596278 128 128 128
-0.0385447 0.0488819 0.596278 128 128 128
-0.0379261 0.0491356 0.599373 128 128 128
-0.0372364 0.0493062 0.601454 128 128 128
-0.0364149 0.0493062 0.601454 128 128 128
-0.0355317 0.0492207 0.600411 128 128 128
-0.0344727 0.0488819 0.596278 128 128 128
-0.0334282 0.0485476 0.592201 128 128 128
-0.0326193 0.0485476 0.592201 128 128 128
-0.0323637 0.0493919 0.6025 128 128 128
-0.0318734 0.0499128 0.608853 128 128 128
-0.0305585 0.0491356 0.599373 128 128 128
-0.0296885 0.0490507 0.598337 128 128 128
-0.0282373 0.0479736 0.585198 128 128 128
-0.0282002 0.0493062 0.601454 128 128 128
-0.0273787 0.0493062 0.601454 128 128 128
-0.0265572 0.0493062 0.601454 128 128 128
-0.0257805 0.0493919 0.6025 128 128 128
-0.0250447 0.0495643 0.604603 128 128 128
-0.0243892 0.0499128 0.608853 128 128 128
-0.0233118 0.0493919 0.6025 128 128 128
-0.022411 0.0492207 0.600411 128 128 128
-0.0214793 0.0489661 0.597306 128 128 128
-0.0206279 0.0488819 0.596278 128 128 128
-0.0198477 0.0489661 0.597306 128 128 128
-0.0189664 0.0487979 0.595253 128 128 128
-0.0180603 0.0485476 0.592201 128 128 128
-0.0172515 0.0485476 0.592201 128 128 128
-0.0164427 0.0485476 0.592201 128 128 128
-0.0157415 0.0488819 0.596278 128 128 128
-0.0149528 0.0489661 0.597306 128 128 128
-0.0141614 0.0490507 0.598337 128 128 128
-0.0133905 0.0492207 0.600411 128 128 128
-0.0125923 0.0493062 0.601454 128 128 128
-0.0118118 0.049478 0.603549 128 128 128
-0.0110066 0.0495643 0.604603 128 128 128
-0.0102705 0.0500006 0.609925 128 128 128
-0.00938786 0.0497379 0.60672 128 128 128
-0.00852933 0.0495643 0.604603 128 128 128
-0.00766343 0.0493062 0.601454 128 128 128
-0.00684196 0.0493062 0.601454 128 128 128
-0.000301038 0.054933 0.670092 128 128 128
0.000611811 0.0547213 0.667509 128 128 128
0.00152057 0.0546161 0.666226 128 128 128
0.00243051 0.0546161 0.666226 128 128 128
0.00330863 0.0540959 0.659881 128 128 128
0.0106773 0.1372 1.67361 128 128 128
0.00601244 0.0540959 0.659881 128 128 128
0.0062259 0.0487142 0.594232 128 128 128
0.00702545 0.0486307 0.593215 128 128 128
0.00783567 0.0486307 0.593215 128 128 128
0.00855796 0.0481362 0.587182 128 128 128
0.00929691 0.047812 0.583228 128 128 128
0.010026 0.0474922 0.579327 128 128 128
0.0108901 0.047812 0.583228 128 128 128
0.0117261 0.0479736 0.585198 128 128 128
0.0125466 0.0480547 0.586188 128 128 128
0.0133472 0.0480547 0.586188 128 128 128
0.0141478 0.0480547 0.586188 128 128 128
0.014898 0.0478927 0.584211 128 128 128
0.0156695 0.047812 0.583228 128 128 128
0.0164661 0.047812 0.583228 128 128 128
0.0172918 0.0478927 0.584211 128 128 128
0.0182126 0.0482179 0.588179 128 128 128
0.0192446 0.0487979 0.595253 128 128 128
0.0199548 0.0485476 0.592201 128 128 128
0.0209065 0.0488819 0.596278 128 128 128
0.0217584 0.0489661 0.597306 128 128 128
0.0225742 0.0489661 0.597306 128 128 128
0.02339 0.0489661 0.597306 128 128 128
0.0242476 0.0490507 0.598337 128 128 128
0.0251517 0.0492207 0.600411 128 128 128
0.0260168 0.0493062 0.601454 128 128 128
0.0267918 0.0492207 0.600411 128 128 128
0.0276118 0.0492207 0.600411 128 128 128
0.0284319 0.0492207 0.600411 128 128 128
0.0293027 0.0493062 0.601454 128 128 128
0.0301242 0.0493062 0.601454 128 128 128
0.0307853 0.0490507 0.598337 128 128 128
0.0316025 0.0490507 0.598337 128 128 128
0.0322526 0.0487979 0.595253 128 128 128
0.0330656 0.0487979 0.595253 128 128 128
0.0338786 0.0487979 0.595253 128 128 128
0.0349317 0.0491356 0.599373 128 128 128
0.0358745 0.0493062 0.601454 128 128 128
0.0368881 0.0495643 0.604603 128 128 128
0.0377138 0.0495643 0.604603 128 128 128
0.0386746 0.0497379 0.60672 128 128 128
0.039782 0.0500888 0.611001 128 128 128
0.0407602 0.0502661 0.613163 128 128 128
0.0416715 0.0503552 0.614251 128 128 128
0.0424352 0.0502661 0.613163 128 128 128
0.0428179 0.0497379 0.60672 128 128 128
0.043343 0.0493919 0.6025 128 128 128
0.0439366 0.0491356 0.599373 128 128 128
0.0447552 0.0491356 0.599373 128 128 128
0.0459716 0.0495643 0.604603 128 128 128
0.0468791 0.049651 0.60566 128 128 128
0.0474574 0.0493919 0.6025 128 128 128
0.0479468 0.0490507 0.598337 128 128 128
0.0480994 0.0483822 0.590183 128 128 128
0.0486568 0.0481362 0.587182 128 128 128
0.0492917 0.0479736 0.585198 128 128 128
0.0499223 0.047812 0.583228 128 128 128
0.0505487 0.0476516 0.581271 128 128 128
0.0508309 0.0471767 0.575477 128 128 128
0.0511917 0.0467881 0.570737 128 128 128
0.0518005 0.0466344 0.568863 128 128 128
0.0525775 0.0466344 0.568863 128 128 128
0.0530929 0.0464058 0.566074 128 128 128
0.0543994 0.0468653 0.571679 128 128 128
0.0554547 0.0470984 0.574523 128 128 128
0.0586719 0.0491356 0.599373 128 128 128
0.0592854 0.0489661 0.597306 128 128 128
0.0593845 0.0483822 0.590183 128 128 128
0.0596822 0.0479736 0.585198 128 128 128
0.0601765 0.0477317 0.582248 128 128 128
0.0602628 0.0471767 0.575477 128 128 128
0.0606458 0.0468653 0.571679 128 128 128
0.0612246 0.0467111 0.569798 128 128 128
0.0630396 0.0474922 0.579327 128 128 128
0.0645869 0.0480547 0.586188 128 128 128
0.0656096 0.0482179 0.588179 128 128 128
0.0664129 0.0482179 0.588179 128 128 128
0.0672162 0.0482179 0.588179 128 128 128
0.0681353 0.0482999 0.589179 128 128 128
0.06894 0.0482999 0.589179 128 128 128
0.0698635 0.0483822 0.590183 128 128 128
0.0705494 0.0482999 0.589179 128 128 128
0.0711122 0.0481362 0.587182 128 128 128
0.0715504 0.0478927 0.584211 128 128 128
0.0733377 0.0485476 0.592201 128 128 128
0.0749149 0.0490507 0.598337 128 128 128
0.0757321 0.0490507 0.598337 128 128 128
0.0765493 0.0490507 0.598337 128 128 128
0.0773665 0.0490507 0.598337 128 128 128
0.078319 0.0491356 0.599373 128 128 128
0.0792748 0.0492207 0.600411 128 128 128
0.0802339 0.0493062 0.601454 128 128 128
0.0813377 0.049478 0.603549 128 128 128
0.0821621 0.049478 0.603549 128 128 128
0.0826983 0.0493062 0.601454 128 128 128
0.0826587 0.0487979 0.595253 128 128 128
0.08262 0.0482999 0.589179 128 128 128
0.083283 0.0482179 0.588179 128 128 128
0.0842294 0.0482999 0.589179 128 128 128
0.0860586 0.0488819 0.596278 128 128 128
0.086873 0.0488819 0.596278 128 128 128
0.0867911 0.0483822 0.590183 128 128 128
0.0872997 0.0482179 0.588179 128 128 128
0.0876566 0.0479736 0.585198 128 128 128
0.0883067 0.0478927 0.584211 128 128 128
0.0891046 0.0478927 0.584211 128 128 128
0.0900544 0.0479736 0.585198 128 128 128
0.0908537 0.0479736 0.585198 128 128 128
0.0919636 0.0481362 0.587182 128 128 128
0.0927656 0.0481362 0.587182 128 128 128
0.0940458 0.0483822 0.590183 128 128 128
0.0955026 0.0487142 0.594232 128 128 128
0.0961493 0.0486307 0.593215 128 128 128
0.0969595 0.0486307 0.593215 128 128 128
0.0976026 0.0485476 0.592201 128 128 128
0.09858 0.0486307 0.593215 128 128 128
0.0995607 0.0487142 0.594232 128 128 128
0.100545 0.0487979 0.595253 128 128 128
0.101707 0.0489661 0.597306 128 128 128
0.102523 0.0489661 0.597306 128 128 128
0.103161 0.0488819 0.596278 128 128 128
0.102913 0.0483822 0.590183 128 128 128
0.102843 0.0479736 0.585198 128 128 128
0.103467 0.0478927 0.584211 128 128 128
0.10374 0.0476516 0.581271 128 128 128
0.104534 0.0476516 0.581271 128 128 128
0.105505 0.0477317 0.582248 128 128 128
0.1063 0.0477317 0.582248 128 128 128
0.108003 0.0481362 0.587182 128 128 128
0.110681 0.0489661 0.597306 128 128 128
0.111497 0.0489661 0.597306 128 128 128
0.111163 0.0484648 0.59119 128 128 128
0.111589 0.0482999 0.589179 128 128 128
0.112203 0.0482179 0.588179 128 128 128
0.113007 0.0482179 0.588179 128 128 128
0.118855 0.0503552 0.614251 128 128 128
0.119694 0.0503552 0.614251 128 128 128
0.118433 0.049478 0.603549 128 128 128
0.11782 0.0488819 0.596278 128 128 128
0.118228 0.0487142 0.594232 128 128 128
0.119039 0.0487142 0.594232 128 128 128
0.120057 0.0487979 0.595253 128 128 128
0.121917 0.0492207 0.600411 128 128 128
0.12295 0.0493062 0.601454 128 128 128
0.123772 0.0493062 0.601454 128 128 128
0.123948 0.0490507 0.598337 128 128 128
0.124765 0.0490507 0.598337 128 128 128
0.125582 0.0490507 0.598337 128 128 128
0.126399 0.0490507 0.598337 128 128 128
0.130138 0.0501773 0.61208 128 128 128
0.128255 0.0491356 0.599373 128 128 128
0.127312 0.0484648 0.59119 128 128 128
0.126394 0.047812 0.583228 128 128 128
0.1255 0.0471767 0.575477 128 128 128
0.12566 0.0469427 0.572624 128 128 128
0.133039 0.0493919 0.6025 128 128 128
0.133862 0.0493919 0.6025 128 128 128
0.134218 0.0492207 0.600411 128 128 128
0.134339 0.0489661 0.597306 128 128 128
0.13309 0.0482179 0.588179 128 128 128
0.133666 0.0481362 0.587182 128 128 128
0.134468 0.0481362 0.587182 128 128 128
0.134359 0.047812 0.583228 128 128 128
0.134929 0.0477317 0.582248 128 128 128
0.135953 0.047812 0.583228 128 128 128
0.136749 0.047812 0.583228 128 128 128
0.143313 0.0489661 0.597306 128 128 128
0.147174 0.0500006 0.609925 128 128 128
0.147747 0.0499128 0.608853 128 128 128
0.148579 0.0499128 0.608853 128 128 128
0.148887 0.0497379 0.60672 128 128 128
0.146634 0.0487142 0.594232 128 128 128
0.14545 0.0480547 0.586188 128 128 128
0.146003 0.0479736 0.585198 128 128 128
0.146308 0.047812 0.583228 128 128 128
0.147602 0.0479736 0.585198 128 128 128
0.139707 0.044445 0.542156 128 128 128
0.140668 0.0445147 0.543005 128 128 128
0.159088 0.0490507 0.598337 128 128 128
0.158265 0.0485476 0.592201 128 128 128
0.157459 0.0480547 0.586188 128 128 128
0.157992 0.0479736 0.585198 128 128 128
0.158791 0.0479736 0.585198 128 128 128
0.160404 0.0482179 0.588179 128 128 128
0.161207 0.0482179 0.588179 128 128 128
0.16201 0.0482179 0.588179 128 128 128
0.163368 0.0483822 0.590183 128 128 128
0.164455 0.0484648 0.59119 128 128 128
0.166112 0.0487142 0.594232 128 128 128
-0.732754 0.0643063 0.771575 128 128 128
-0.711111 0.0624968 0.749864 128 128 128
-0.696518 0.0613026 0.735536 128 128 128
-0.691112 0.0609146 0.73088 128 128 128
-0.697471 0.061564 0.738672 128 128 128
